ply
format ascii 1.0
element vertex 1314
property float x
property float y
property float z
property uchar red
property uchar green
property uchar blue
end_header
0.364413 0.466904 -2.915303 114 87 59
0.376605 0.467903 -2.921541 116 96 58
0.388294 0.468237 -2.923626 116 97 54
0.401722 0.470588 -2.938307 116 91 52
0.531532 0.369369 -2.306306 85 81 93
0.540541 0.369369 -2.306306 105 110 112
0.549550 0.369369 -2.306306 115 122 116
0.558559 0.369369 -2.306306 118 120 111
0.567568 0.369369 -2.306306 123 125 115
0.576577 0.369369 -2.306306 135 139 130
0.585586 0.369369 -2.306306 137 141 134
0.594595 0.369369 -2.306306 139 145 131
0.603604 0.369369 -2.306306 141 147 127
0.612613 0.369369 -2.306306 140 146 123
0.621622 0.369369 -2.306306 133 136 116
0.630631 0.369369 -2.306306 126 124 104
0.639640 0.369369 -2.306306 125 115 96
0.648649 0.369369 -2.306306 127 104 88
0.657658 0.369369 -2.306306 126 95 82
0.666667 0.369369 -2.306306 123 90 78
0.675676 0.369369 -2.306306 120 87 75
0.684685 0.369369 -2.306306 119 89 75
0.693694 0.369369 -2.306306 122 95 74
0.702703 0.369369 -2.306306 123 98 70
0.711712 0.369369 -2.306306 118 96 66
0.720721 0.369369 -2.306306 105 94 63
0.729730 0.369369 -2.306306 73 71 48
0.738739 0.369369 -2.306306 24 21 14
-1.457859 0.364465 -2.332574 6 0 7
-1.452884 0.365505 -2.339235 3 0 6
-1.439636 0.364465 -2.332574 1 0 4
-1.425653 0.363224 -2.324631 1 0 2
-1.405405 0.360360 -2.306306 1 0 1
-1.396396 0.360360 -2.306306 1 0 1
-1.478104 0.383923 -2.457108 1 0 2
-1.468506 0.383923 -2.457108 0 0 2
-1.366516 0.361991 -2.316742 1 0 1
-1.357466 0.361991 -2.316742 2 0 0
-1.432250 0.392397 -2.511343 1 0 0
-1.410334 0.389058 -2.489969 1 0 0
-1.395518 0.387644 -2.480921 1 0 0
-1.377483 0.385310 -2.465984 2 0 0
-1.365385 0.384615 -2.461539 1 0 0
-1.349282 0.382775 -2.449761 1 0 1
-1.292556 0.369302 -2.363531 2 0 1
-1.283324 0.369302 -2.363531 2 0 0
-1.264605 0.366552 -2.345934 2 0 1
-1.243335 0.363018 -2.323313 2 0 1
-1.234260 0.363018 -2.323313 2 0 0
-1.232250 0.385078 -2.464501 0 0 0
-1.222623 0.385078 -2.464501 0 0 0
-1.212996 0.385078 -2.464501 0 0 0
-1.119266 0.366972 -2.348624 1 0 1
-1.100000 0.363636 -2.327273 0 0 3
-1.089053 0.363018 -2.323313 0 1 3
-1.147679 0.385775 -2.468957 0 1 2
-1.138035 0.385775 -2.468957 2 0 1
-1.128391 0.385775 -2.468957 2 0 1
-1.116055 0.384847 -2.463019 1 0 1
-1.059603 0.385310 -2.465984 0 1 0
-1.049970 0.385310 -2.465984 0 1 0
-1.109114 0.410783 -2.629012 1 0 1
-1.030084 0.385078 -2.464501 3 0 1
-1.088575 0.410783 -2.629012 2 0 1
-0.990385 0.384615 -2.461539 0 1 1
-0.980769 0.384615 -2.461539 0 1 0
-0.968825 0.383693 -2.455636 1 1 0
-0.955224 0.382090 -2.445373 1 1 1
-0.943981 0.381406 -2.441001 1 0 2
-0.933889 0.381179 -2.439547 1 0 3
-0.897110 0.369942 -2.367630 2 1 3
-0.881239 0.367183 -2.349971 2 0 2
-0.871560 0.366972 -2.348624 2 0 2
-0.862385 0.366972 -2.348624 1 1 1
-0.895307 0.385078 -2.464501 0 1 1
-0.885147 0.384847 -2.463019 2 0 1
-0.875000 0.384615 -2.461539 3 0 2
-0.864346 0.384154 -2.458583 3 0 1
-0.854742 0.384154 -2.458583 4 0 1
-0.351351 0.360360 -2.306306 2 2 3
-0.342342 0.360360 -2.306306 2 3 3
-0.333333 0.360360 -2.306306 2 2 3
-0.331797 0.368664 -2.359447 2 2 3
-0.323512 0.369728 -2.366262 3 2 3
-0.307692 0.384615 -2.461539 3 2 3
-0.297719 0.384154 -2.458583 4 3 3
-0.287942 0.383923 -2.457108 6 3 3
-0.278011 0.383463 -2.454164 6 4 4
-0.267144 0.381634 -2.442457 5 5 4
-0.252042 0.373396 -2.389732 5 3 5
-0.242707 0.373396 -2.389732 5 3 5
-0.072521 0.362606 -2.320680 2 2 5
-0.063063 0.360360 -2.306306 2 2 4
-0.054054 0.360360 -2.306306 3 2 2
-0.018018 0.360360 -2.306306 5 3 4
0.258065 1.146953 -7.340502 6 4 7
0.286225 1.144902 -7.327370 6 6 7
0.314848 1.144902 -7.327370 5 5 6
0.509284 1.697613 -10.864721 5 4 3
0.551724 1.697613 -10.864721 5 3 2
0.594164 1.697613 -10.864721 4 2 3
0.251816 0.387409 -2.479419 92 87 62
0.259459 0.384384 -2.460060 99 94 66
0.269069 0.384384 -2.460060 104 97 69
0.365193 0.456491 -2.921541 118 93 54
0.375801 0.455516 -2.915303 117 95 54
0.388017 0.456491 -2.921541 119 98 55
0.399714 0.456817 -2.923626 123 97 53
0.531532 0.360360 -2.306306 116 124 118
0.540541 0.360360 -2.306306 123 143 127
0.549550 0.360360 -2.306306 129 150 128
0.558559 0.360360 -2.306306 135 150 128
0.567568 0.360360 -2.306306 144 155 134
0.576577 0.360360 -2.306306 151 161 141
0.585586 0.360360 -2.306306 149 156 139
0.594595 0.360360 -2.306306 148 152 133
0.603604 0.360360 -2.306306 144 144 118
0.612613 0.360360 -2.306306 139 141 111
0.621622 0.360360 -2.306306 134 137 110
0.630631 0.360360 -2.306306 129 130 109
0.639640 0.360360 -2.306306 126 123 106
0.648649 0.360360 -2.306306 126 112 99
0.657658 0.360360 -2.306306 125 103 89
0.666667 0.360360 -2.306306 121 95 79
0.675676 0.360360 -2.306306 119 90 73
0.684685 0.360360 -2.306306 120 93 74
0.693694 0.360360 -2.306306 126 103 76
0.702703 0.360360 -2.306306 129 108 74
0.711712 0.360360 -2.306306 126 107 71
0.720721 0.360360 -2.306306 120 109 73
0.729730 0.360360 -2.306306 104 99 71
0.738739 0.360360 -2.306306 60 52 40
0.747748 0.360360 -2.306306 21 14 13
-1.453719 0.354344 -2.325951 5 0 8
-1.443814 0.354143 -2.324631 2 0 7
-1.423423 0.351351 -2.306306 0 0 4
-1.414414 0.351351 -2.306306 0 0 2
-1.405405 0.351351 -2.306306 1 0 1
-1.396396 0.351351 -2.306306 1 0 1
-1.387387 0.351351 -2.306306 0 0 2
-1.386969 0.353541 -2.320680 0 0 3
-1.377904 0.353541 -2.320680 0 0 3
-1.360360 0.351351 -2.306306 0 0 2
-1.351351 0.351351 -2.306306 1 0 0
-1.433129 0.382822 -2.512883 1 0 0
-1.412051 0.379793 -2.493001 0 0 0
-1.398058 0.378641 -2.485437 0 0 0
-1.386667 0.378182 -2.482424 1 0 0
-1.367851 0.375677 -2.465984 1 0 0
-1.349282 0.373206 -2.449761 1 0 1
-1.271283 0.354143 -2.324631 1 0 1
-1.273039 0.357184 -2.344591 2 0 0
-1.252411 0.353942 -2.323313 2 0 1
-1.234234 0.351351 -2.306306 2 0 1
-1.225225 0.351351 -2.306306 2 0 1
-1.187215 0.356164 -2.337899 1 0 1
-1.162162 0.351351 -2.306306 0 0 0
-1.153153 0.351351 -2.306306 0 0 0
-1.222623 0.375451 -2.464501 0 0 0
-1.213727 0.375677 -2.465984 1 0 1
-1.090090 0.351351 -2.306306 0 0 1
-1.081081 0.351351 -2.306306 0 1 1
-1.072072 0.351351 -2.306306 0 1 1
-1.063063 0.351351 -2.306306 0 1 0
-1.128391 0.376130 -2.468957 0 0 0
-0.998788 0.378182 -2.482424 1 0 2
-0.980769 0.375000 -2.461539 2 0 1
-0.968825 0.374101 -2.455636 2 0 1
-0.958658 0.373877 -2.454164 2 0 1
-0.893495 0.359240 -2.358089 1 1 3
-0.881239 0.358003 -2.349971 2 0 2
-0.865604 0.355353 -2.332574 2 0 2
-0.856005 0.355151 -2.331246 1 0 3
-0.894768 0.375225 -2.463019 1 0 3
-0.885680 0.375451 -2.464501 1 0 2
-0.875526 0.375225 -2.463019 2 0 2
-0.865385 0.375000 -2.461539 3 0 1
-0.857831 0.375904 -2.467470 3 0 1
-0.351351 0.351351 -2.306306 2 2 3
-0.342342 0.351351 -2.306306 2 3 4
-0.333333 0.351351 -2.306306 2 2 5
-0.324324 0.351351 -2.306306 3 2 4
-0.315315 0.351351 -2.306306 3 2 4
-0.306306 0.351351 -2.306306 3 1 3
-0.288115 0.374550 -2.458583 3 3 2
-0.271822 0.365554 -2.399531 3 5 4
-0.261682 0.364486 -2.392523 2 5 4
-0.252042 0.364061 -2.389732 3 3 3
-0.242424 0.363636 -2.386946 4 2 3
-0.081081 0.351351 -2.306306 2 2 6
-0.072072 0.351351 -2.306306 2 2 6
-0.063063 0.351351 -2.306306 3 1 5
-0.054054 0.351351 -2.306306 3 2 3
-0.045045 0.351351 -2.306306 3 2 2
-0.036036 0.351351 -2.306306 3 2 2
-0.027027 0.351351 -2.306306 3 2 3
-0.018018 0.351351 -2.306306 4 4 3
-0.009009 0.351351 -2.306306 5 4 5
0.286738 1.118280 -7.340502 6 5 8
0.314848 1.116279 -7.327370 5 4 6
0.343470 1.116279 -7.327370 5 4 4
0.371429 1.114286 -7.314286 4 3 2
0.400000 1.114286 -7.314286 3 2 3
0.242131 0.377724 -2.479419 92 87 63
0.237986 0.356979 -2.343249 99 98 65
0.245734 0.354949 -2.329920 103 99 64
0.269069 0.374775 -2.460060 107 97 65
0.495495 0.351351 -2.306306 67 60 68
0.504505 0.351351 -2.306306 88 82 83
0.513514 0.351351 -2.306306 108 102 95
0.522523 0.351351 -2.306306 122 123 108
0.531532 0.351351 -2.306306 126 138 115
0.540541 0.351351 -2.306306 129 153 122
0.549550 0.351351 -2.306306 130 157 125
0.558559 0.351351 -2.306306 139 161 133
0.567568 0.351351 -2.306306 152 165 141
0.576577 0.351351 -2.306306 157 167 142
0.585586 0.351351 -2.306306 158 167 140
0.594595 0.351351 -2.306306 156 163 135
0.603604 0.351351 -2.306306 150 154 119
0.612613 0.351351 -2.306306 139 142 105
0.621622 0.351351 -2.306306 134 136 105
0.630631 0.351351 -2.306306 131 131 108
0.639640 0.351351 -2.306306 127 125 110
0.648649 0.351351 -2.306306 126 118 107
0.657658 0.351351 -2.306306 124 109 95
0.666667 0.351351 -2.306306 122 102 85
0.675676 0.351351 -2.306306 122 101 79
0.684685 0.351351 -2.306306 124 105 79
0.693694 0.351351 -2.306306 129 111 79
0.702703 0.351351 -2.306306 133 118 79
0.711712 0.351351 -2.306306 133 123 80
0.720721 0.351351 -2.306306 126 121 78
0.729730 0.351351 -2.306306 117 109 75
0.738739 0.351351 -2.306306 97 85 63
0.747748 0.351351 -2.306306 56 44 35
0.756757 0.351351 -2.306306 18 12 10
-1.448783 0.344086 -2.318053 4 0 7
-1.432432 0.342342 -2.306306 2 0 6
-1.423423 0.342342 -2.306306 0 0 3
-1.414414 0.342342 -2.306306 0 0 1
-1.405405 0.342342 -2.306306 0 0 0
-1.396396 0.342342 -2.306306 0 0 0
-1.387387 0.342342 -2.306306 0 0 0
-1.423313 0.373006 -2.512883 0 0 0
-1.405735 0.370958 -2.499085 0 0 0
-1.261261 0.342342 -2.306306 1 0 1
-1.252252 0.342342 -2.306306 2 0 0
-1.243243 0.342342 -2.306306 2 0 0
-1.234234 0.342342 -2.306306 2 0 0
-1.225225 0.342342 -2.306306 2 0 1
-1.170068 0.344671 -2.321995 1 0 0
-1.232250 0.365824 -2.464501 2 0 0
-1.237852 0.388747 -2.618926 1 0 1
-1.081081 0.342342 -2.306306 1 0 0
-1.072072 0.342342 -2.306306 1 0 0
-1.063063 0.342342 -2.306306 0 0 0
-1.054054 0.342342 -2.306306 0 0 0
-0.997167 0.344476 -2.320680 0 0 0
-0.988102 0.344476 -2.320680 0 1 0
-1.104153 0.388498 -2.617252 0 0 0
-1.030000 0.380000 -2.560000 2 0 2
-0.989691 0.368708 -2.483930 3 0 1
-0.971154 0.365385 -2.461539 3 0 2
-0.970285 0.368708 -2.483930 3 0 1
-0.912941 0.357647 -2.409412 3 0 3
-0.880734 0.348624 -2.348624 3 0 2
-0.865111 0.346044 -2.331246 3 0 2
-0.852608 0.344671 -2.321995 2 0 5
-0.843537 0.344671 -2.321995 2 1 5
-0.892662 0.368708 -2.483930 1 0 2
-0.882959 0.368708 -2.483930 2 0 1
-0.873257 0.368708 -2.483930 3 0 2
-0.524921 0.383596 -2.584227 5 3 1
-0.342342 0.342342 -2.306306 2 2 3
-0.333333 0.342342 -2.306306 2 2 6
-0.324324 0.342342 -2.306306 2 2 6
-0.315315 0.342342 -2.306306 2 2 3
-0.306306 0.342342 -2.306306 3 2 3
-0.297297 0.342342 -2.306306 3 2 3
-0.281195 0.356180 -2.399531 2 2 2
-0.271028 0.355140 -2.392523 2 3 3
-0.261682 0.355140 -2.392523 2 4 2
-0.251895 0.354519 -2.388338 3 2 2
-0.242424 0.354312 -2.386946 3 2 2
-0.233100 0.354312 -2.386946 3 2 3
-0.090090 0.342342 -2.306306 2 2 6
-0.081081 0.342342 -2.306306 2 2 6
-0.072072 0.342342 -2.306306 2 2 4
-0.063063 0.342342 -2.306306 3 2 3
-0.054054 0.342342 -2.306306 3 2 3
-0.045045 0.342342 -2.306306 3 2 2
-0.036036 0.342342 -2.306306 3 2 2
-0.027027 0.342342 -2.306306 3 2 3
-0.018018 0.342342 -2.306306 3 3 4
0.531561 2.019933 -13.607973 5 5 6
0.315412 1.089606 -7.340502 5 3 6
0.343470 1.087656 -7.327370 5 3 5
0.371429 1.085714 -7.314286 4 3 4
0.400000 1.085714 -7.314286 3 2 5
0.882353 2.235294 -15.058824 2 2 4
0.222609 0.352464 -2.374493 93 86 62
0.229358 0.348624 -2.348624 101 96 67
0.236902 0.346241 -2.332574 108 105 68
0.245734 0.345848 -2.329920 102 94 58
0.254835 0.345848 -2.329920 104 89 59
0.263936 0.345848 -2.329920 119 104 72
0.486486 0.342342 -2.306306 92 85 92
0.495495 0.342342 -2.306306 109 105 102
0.504505 0.342342 -2.306306 125 122 106
0.513514 0.342342 -2.306306 132 132 109
0.522523 0.342342 -2.306306 136 144 118
0.531532 0.342342 -2.306306 140 155 124
0.540541 0.342342 -2.306306 142 162 128
0.549550 0.342342 -2.306306 147 168 131
0.558559 0.342342 -2.306306 153 168 133
0.567568 0.342342 -2.306306 159 167 139
0.576577 0.342342 -2.306306 161 170 143
0.585586 0.342342 -2.306306 159 173 141
0.594595 0.342342 -2.306306 154 168 133
0.603604 0.342342 -2.306306 152 163 126
0.612613 0.342342 -2.306306 141 148 111
0.621622 0.342342 -2.306306 138 143 111
0.630631 0.342342 -2.306306 131 135 111
0.639640 0.342342 -2.306306 129 127 112
0.648649 0.342342 -2.306306 127 121 110
0.657658 0.342342 -2.306306 123 111 100
0.666667 0.342342 -2.306306 125 106 94
0.675676 0.342342 -2.306306 130 104 88
0.684685 0.342342 -2.306306 134 107 86
0.693694 0.342342 -2.306306 135 116 85
0.702703 0.342342 -2.306306 133 120 80
0.711712 0.342342 -2.306306 134 124 81
0.720721 0.342342 -2.306306 132 125 81
0.729730 0.342342 -2.306306 130 116 81
0.738739 0.342342 -2.306306 119 99 73
0.747748 0.342342 -2.306306 91 73 59
0.756757 0.342342 -2.306306 50 39 33
0.765766 0.342342 -2.306306 18 12 12
-1.448783 0.335031 -2.318053 4 0 7
-1.432432 0.333333 -2.306306 2 0 6
-1.423423 0.333333 -2.306306 1 0 3
-1.414414 0.333333 -2.306306 1 0 1
-1.405405 0.333333 -2.306306 1 0 1
-1.396396 0.333333 -2.306306 1 0 0
-1.387387 0.333333 -2.306306 1 0 0
-1.252252 0.333333 -2.306306 2 0 0
-1.243243 0.333333 -2.306306 2 0 1
-1.234234 0.333333 -2.306306 2 0 0
-1.225225 0.333333 -2.306306 1 0 1
-1.297017 0.383917 -2.656291 0 1 0
-1.286641 0.383917 -2.656291 1 1 0
-1.276265 0.383917 -2.656291 2 0 0
-1.257732 0.381443 -2.639175 1 0 0
-1.239437 0.379001 -2.622279 2 0 0
-1.154131 0.364982 -2.525277 0 0 0
-0.997167 0.335411 -2.320680 1 0 0
-0.988102 0.335411 -2.320680 1 0 1
-1.104153 0.378275 -2.617252 1 0 1
-1.105943 0.382429 -2.645995 1 0 0
-1.089274 0.380218 -2.630700 2 0 1
-1.050000 0.370000 -2.560000 2 0 1
-1.040000 0.370000 -2.560000 2 0 1
-1.022967 0.367474 -2.542520 3 0 1
-0.999388 0.362523 -2.508267 3 0 2
-0.983567 0.360316 -2.493001 3 0 2
-0.881239 0.339644 -2.349971 3 0 1
-0.865111 0.336938 -2.331246 3 0 1
-0.853575 0.335982 -2.324631 2 0 3
-0.844495 0.335982 -2.324631 2 1 3
-0.546835 0.374684 -2.592405 1 5 1
-0.535016 0.373502 -2.584227 2 4 1
-0.524590 0.373266 -2.582598 4 2 2
-0.514502 0.373266 -2.582598 4 2 3
-0.333333 0.333333 -2.306306 3 2 5
-0.324324 0.333333 -2.306306 2 1 6
-0.315315 0.333333 -2.306306 2 2 4
-0.306306 0.333333 -2.306306 2 2 2
-0.297297 0.333333 -2.306306 2 3 2
-0.299766 0.346604 -2.398126 2 2 2
-0.289889 0.345996 -2.393922 2 2 2
-0.280538 0.345996 -2.393922 3 2 2
-0.271028 0.345794 -2.392523 4 2 2
-0.261682 0.345794 -2.392523 4 2 2
-0.251748 0.344988 -2.386946 4 2 2
-0.242424 0.344988 -2.386946 4 2 2
-0.233236 0.345190 -2.388338 3 2 3
-0.099099 0.333333 -2.306306 3 2 7
-0.090090 0.333333 -2.306306 2 1 7
-0.081081 0.333333 -2.306306 3 2 6
-0.072072 0.333333 -2.306306 3 2 4
-0.063063 0.333333 -2.306306 4 2 2
-0.054054 0.333333 -2.306306 3 2 2
-0.045045 0.333333 -2.306306 2 2 2
-0.036036 0.333333 -2.306306 2 2 2
-0.027027 0.333333 -2.306306 2 2 2
-0.018018 0.333333 -2.306306 3 3 4
0.208333 1.541667 -10.666667 6 1 4
0.254642 1.570292 -10.864721 6 1 3
0.297082 1.570292 -10.864721 5 2 1
0.531561 1.966777 -13.607973 5 3 7
0.584718 1.966777 -13.607973 6 2 7
0.642140 1.979933 -13.698997 6 2 6
0.729825 2.077193 -14.371930 4 3 4
0.823529 2.176471 -15.058824 3 3 4
0.882353 2.176471 -15.058824 3 2 4
0.220690 0.340230 -2.354023 98 91 65
0.229358 0.339450 -2.348624 108 103 74
0.237037 0.337322 -2.333903 114 111 72
0.245734 0.336746 -2.329920 110 105 63
0.254835 0.336746 -2.329920 115 102 64
0.263786 0.336555 -2.328596 124 110 68
0.272882 0.336555 -2.328596 121 107 63
0.486486 0.333333 -2.306306 116 101 88
0.495495 0.333333 -2.306306 125 120 95
0.504505 0.333333 -2.306306 135 138 108
0.513514 0.333333 -2.306306 138 148 118
0.522523 0.333333 -2.306306 147 162 128
0.531532 0.333333 -2.306306 147 163 126
0.540541 0.333333 -2.306306 151 169 132
0.549550 0.333333 -2.306306 157 176 138
0.558559 0.333333 -2.306306 163 175 136
0.567568 0.333333 -2.306306 167 177 141
0.576577 0.333333 -2.306306 164 178 144
0.585586 0.333333 -2.306306 158 179 141
0.594595 0.333333 -2.306306 152 174 132
0.603604 0.333333 -2.306306 147 162 122
0.612613 0.333333 -2.306306 139 144 103
0.621622 0.333333 -2.306306 140 144 105
0.630631 0.333333 -2.306306 132 137 108
0.639640 0.333333 -2.306306 130 130 108
0.648649 0.333333 -2.306306 125 119 100
0.657658 0.333333 -2.306306 123 113 99
0.666667 0.333333 -2.306306 128 112 98
0.675676 0.333333 -2.306306 135 109 93
0.684685 0.333333 -2.306306 136 109 90
0.693694 0.333333 -2.306306 136 117 90
0.702703 0.333333 -2.306306 135 120 85
0.711712 0.333333 -2.306306 134 119 79
0.720721 0.333333 -2.306306 134 125 84
0.729730 0.333333 -2.306306 133 122 90
0.738739 0.333333 -2.306306 125 108 86
0.747748 0.333333 -2.306306 110 94 78
0.756757 0.333333 -2.306306 82 69 55
0.765766 0.333333 -2.306306 43 35 25
-1.448783 0.325976 -2.318053 5 0 8
-1.441360 0.326346 -2.320680 3 0 7
-1.436364 0.327273 -2.327273 2 0 3
-1.414414 0.324324 -2.306306 2 0 1
-1.405405 0.324324 -2.306306 2 0 1
-1.396396 0.324324 -2.306306 2 0 1
-1.387387 0.324324 -2.306306 2 0 1
-1.254545 0.327273 -2.327273 2 0 2
-1.234234 0.324324 -2.306306 1 0 1
-1.225225 0.324324 -2.306306 0 0 2
-1.296176 0.373299 -2.654569 0 1 0
-1.278350 0.371134 -2.639175 0 1 0
-1.268041 0.371134 -2.639175 1 0 0
-1.249680 0.368758 -2.622279 1 0 0
-1.239437 0.368758 -2.622279 1 0 0
-1.130999 0.373541 -2.656291 1 0 1
-1.114120 0.371373 -2.640877 1 0 1
-1.105943 0.372093 -2.645995 2 0 1
-1.089274 0.369942 -2.630700 3 0 1
-1.050000 0.360000 -2.560000 3 0 1
-1.037406 0.359102 -2.553616 3 0 1
-1.027431 0.359102 -2.553616 3 1 0
-1.003690 0.354244 -2.519065 3 0 1
-0.993850 0.354244 -2.519065 2 0 2
-0.866591 0.328392 -2.335234 2 0 0
-0.855518 0.327645 -2.329920 2 0 1
-0.848347 0.328392 -2.335234 3 0 2
-0.559796 0.366412 -2.605598 2 3 0
-0.549269 0.366179 -2.603941 2 4 0
-0.536709 0.364557 -2.592405 3 3 0
-0.529262 0.366412 -2.605598 3 2 2
-0.519084 0.366412 -2.605598 3 2 3
-0.349057 0.339623 -2.415094 5 2 5
-0.338425 0.338425 -2.406580 3 1 6
-0.315315 0.324324 -2.306306 2 2 4
-0.306306 0.324324 -2.306306 2 2 2
-0.308953 0.337039 -2.396723 2 2 2
-0.299240 0.336645 -2.393922 2 2 2
-0.289889 0.336645 -2.393922 2 2 2
-0.280538 0.336645 -2.393922 3 2 2
-0.251895 0.335860 -2.388338 5 1 3
-0.242566 0.335860 -2.388338 5 1 2
-0.233236 0.335860 -2.388338 5 2 2
-0.214702 0.336056 -2.389732 6 2 4
-0.205607 0.336449 -2.392523 6 2 5
-0.099099 0.324324 -2.306306 1 3 7
-0.090090 0.324324 -2.306306 2 3 7
-0.081081 0.324324 -2.306306 3 3 6
-0.072072 0.324324 -2.306306 4 3 4
-0.063063 0.324324 -2.306306 4 3 2
-0.054054 0.324324 -2.306306 4 2 1
-0.045045 0.324324 -2.306306 3 3 0
-0.036036 0.324324 -2.306306 2 3 1
-0.027027 0.324324 -2.306306 2 2 2
-0.018018 0.324324 -2.306306 5 2 3
-0.009009 0.324324 -2.306306 6 2 6
0.208333 1.500000 -10.666667 6 1 5
0.250000 1.500000 -10.666667 6 1 2
0.291667 1.500000 -10.666667 5 1 1
0.333333 1.500000 -10.666667 5 2 3
0.478405 1.913621 -13.607973 6 2 6
0.531561 1.913621 -13.607973 6 2 7
0.590604 1.932886 -13.744967 7 1 8
0.673684 2.021053 -14.371930 6 2 7
0.764706 2.117647 -15.058824 4 3 4
0.823529 2.117647 -15.058824 4 2 3
0.882353 2.117647 -15.058824 6 2 4
0.941176 2.117647 -15.058824 7 2 5
1.000000 2.117647 -15.058824 8 3 6
0.222222 0.333333 -2.370370 102 99 72
0.229489 0.330465 -2.349971 111 109 79
0.237037 0.328205 -2.333903 118 114 75
0.245734 0.327645 -2.329920 124 118 72
0.254545 0.327273 -2.327273 129 119 74
0.263636 0.327273 -2.327273 131 124 75
0.361174 0.433409 -3.082016 135 134 81
0.486486 0.324324 -2.306306 127 102 74
0.495495 0.324324 -2.306306 134 122 83
0.504505 0.324324 -2.306306 138 135 97
0.513514 0.324324 -2.306306 140 148 111
0.549550 0.324324 -2.306306 165 188 152
0.558559 0.324324 -2.306306 171 192 156
0.567568 0.324324 -2.306306 173 191 155
0.576577 0.324324 -2.306306 167 189 150
0.585586 0.324324 -2.306306 163 187 145
0.594595 0.324324 -2.306306 155 174 132
0.603604 0.324324 -2.306306 137 148 109
0.612613 0.324324 -2.306306 134 140 95
0.621622 0.324324 -2.306306 138 144 97
0.630631 0.324324 -2.306306 135 141 103
0.639640 0.324324 -2.306306 133 129 99
0.648649 0.324324 -2.306306 123 115 89
0.657658 0.324324 -2.306306 124 115 92
0.666667 0.324324 -2.306306 130 116 95
0.675676 0.324324 -2.306306 134 116 95
0.684685 0.324324 -2.306306 134 117 96
0.693694 0.324324 -2.306306 135 120 96
0.702703 0.324324 -2.306306 135 121 90
0.711712 0.324324 -2.306306 135 123 83
0.720721 0.324324 -2.306306 138 130 88
0.729730 0.324324 -2.306306 138 129 98
0.738739 0.324324 -2.306306 128 118 98
0.747748 0.324324 -2.306306 122 111 92
0.756757 0.324324 -2.306306 105 93 69
0.765766 0.324324 -2.306306 78 68 48
0.774775 0.324324 -2.306306 28 24 16
-1.457029 0.318725 -2.331246 6 0 6
-1.470520 0.323699 -2.367630 4 0 6
-1.461272 0.323699 -2.367630 2 0 3
-1.428084 0.318363 -2.328596 2 0 0
-1.405405 0.315315 -2.306306 2 0 1
-1.396396 0.315315 -2.306306 2 0 2
-1.535203 0.348910 -2.552025 1 0 2
-1.540592 0.352423 -2.577722 1 0 2
-1.294468 0.333135 -2.436645 1 0 3
-1.240615 0.344615 -2.520615 1 0 0
-1.230769 0.344615 -2.520615 0 0 0
-1.278350 0.360825 -2.639175 0 0 0
-1.275437 0.362929 -2.654569 0 0 0
-1.257732 0.360825 -2.639175 0 0 0
-1.239437 0.358515 -2.622279 1 0 0
-1.117723 0.362225 -2.649418 0 0 0
-1.107374 0.362225 -2.649418 2 0 1
-1.089274 0.359666 -2.630700 3 1 0
-1.000000 0.333333 -2.438095 2 1 0
-0.983452 0.330969 -2.420804 1 1 0
-1.027431 0.349127 -2.553616 1 1 0
-1.006165 0.345253 -2.525277 2 0 0
-0.869565 0.320366 -2.343249 0 1 0
-0.858447 0.319635 -2.337899 1 0 0
-0.851259 0.320366 -2.343249 2 0 1
-0.573257 0.358285 -2.620601 2 3 1
-0.559441 0.356008 -2.603941 3 3 0
-0.546835 0.354430 -2.592405 3 3 0
-0.536709 0.354430 -2.592405 4 2 0
-0.529262 0.356234 -2.605598 4 2 2
-0.514502 0.353090 -2.582598 4 2 3
-0.471698 0.330189 -2.415094 3 2 1
-0.339223 0.329800 -2.412250 3 2 4
-0.327677 0.327677 -2.396723 2 2 3
-0.317943 0.327294 -2.393922 2 2 2
-0.308591 0.327294 -2.393922 2 2 2
-0.299240 0.327294 -2.393922 2 2 2
-0.289889 0.327294 -2.393922 2 2 2
-0.251602 0.326150 -2.385556 6 2 4
-0.242283 0.326150 -2.385556 6 2 4
-0.233236 0.326531 -2.388338 5 4 3
-0.224037 0.326721 -2.389732 5 4 2
-0.214702 0.326721 -2.389732 5 3 2
-0.205607 0.327103 -2.392523 5 3 3
-0.196262 0.327103 -2.392523 4 3 4
-0.108108 0.315315 -2.306306 1 6 4
-0.099099 0.315315 -2.306306 0 5 5
-0.090090 0.315315 -2.306306 1 5 6
-0.081081 0.315315 -2.306306 2 4 4
-0.072072 0.315315 -2.306306 2 4 2
-0.063063 0.315315 -2.306306 3 3 1
-0.054054 0.315315 -2.306306 4 2 1
-0.045045 0.315315 -2.306306 3 3 1
-0.036036 0.315315 -2.306306 2 3 1
-0.027027 0.315315 -2.306306 3 3 2
-0.018018 0.315315 -2.306306 5 3 2
-0.009009 0.315315 -2.306306 5 2 3
0.172043 1.505376 -11.010753 6 1 8
0.208333 1.458333 -10.666667 4 1 5
0.250000 1.458333 -10.666667 3 2 3
0.291667 1.458333 -10.666667 4 2 2
0.333333 1.458333 -10.666667 4 2 3
0.375000 1.458333 -10.666667 6 2 6
0.535117 1.872910 -13.698997 7 2 7
0.590604 1.879195 -13.744967 7 2 7
0.673684 1.964912 -14.371930 6 2 7
0.764706 2.058824 -15.058824 5 2 5
0.829630 2.074074 -15.170370 6 1 5
0.888889 2.074074 -15.170370 7 2 5
0.941176 2.058824 -15.058824 8 3 6
0.215331 0.327677 -2.396723 102 89 62
0.222222 0.324074 -2.370370 110 105 71
0.229489 0.321285 -2.349971 118 115 77
0.237037 0.319088 -2.333903 124 117 73
0.245455 0.318182 -2.327273 126 116 70
0.254545 0.318182 -2.327273 128 118 72
0.263636 0.318182 -2.327273 132 127 72
0.486486 0.315315 -2.306306 135 105 71
0.495495 0.315315 -2.306306 142 126 84
0.504505 0.315315 -2.306306 146 139 98
0.513514 0.315315 -2.306306 150 160 116
0.522523 0.315315 -2.306306 164 187 138
0.543909 0.317280 -2.320680 169 193 154
0.552661 0.317101 -2.319366 172 193 163
0.558559 0.315315 -2.306306 174 193 163
0.567568 0.315315 -2.306306 175 191 158
0.576577 0.315315 -2.306306 170 191 151
0.585586 0.315315 -2.306306 166 190 147
0.594595 0.315315 -2.306306 160 181 139
0.603604 0.315315 -2.306306 149 165 125
0.612613 0.315315 -2.306306 141 154 108
0.621622 0.315315 -2.306306 142 152 106
0.630631 0.315315 -2.306306 141 146 106
0.639640 0.315315 -2.306306 135 133 97
0.648649 0.315315 -2.306306 128 122 88
0.657658 0.315315 -2.306306 130 121 92
0.666667 0.315315 -2.306306 132 120 93
0.675676 0.315315 -2.306306 135 120 96
0.684685 0.315315 -2.306306 137 121 98
0.693694 0.315315 -2.306306 139 123 97
0.702703 0.315315 -2.306306 140 127 92
0.711712 0.315315 -2.306306 140 132 87
0.720721 0.315315 -2.306306 143 134 88
0.729730 0.315315 -2.306306 145 132 91
0.738739 0.315315 -2.306306 135 121 88
0.747748 0.315315 -2.306306 126 115 85
0.756757 0.315315 -2.306306 118 109 74
0.765766 0.315315 -2.306306 101 90 63
0.774775 0.315315 -2.306306 69 61 43
-1.457859 0.309795 -2.332574 7 0 6
-1.458716 0.311927 -2.348624 4 0 4
-1.449541 0.311927 -2.348624 2 0 2
-1.438717 0.311569 -2.345934 2 0 0
-1.418988 0.309267 -2.328596 2 0 1
-1.525234 0.338941 -2.552025 0 0 4
-1.513379 0.338519 -2.548849 0 0 3
-1.397339 0.314633 -2.368999 0 0 2
-1.391304 0.315362 -2.374493 0 0 3
-1.258324 0.312285 -2.351320 2 0 2
-1.294468 0.323617 -2.436645 1 0 2
-1.220809 0.314451 -2.367630 2 0 1
-1.211561 0.314451 -2.367630 1 0 1
-1.442441 0.377254 -2.840499 1 0 1
-1.637693 0.441917 -3.327376 2 0 0
-1.296176 0.352560 -2.654569 1 0 0
-1.278350 0.350515 -2.639175 1 0 0
-1.275437 0.352560 -2.654569 0 0 0
-1.114583 0.354167 -2.666667 1 1 0
-1.093488 0.350741 -2.640877 2 1 0
-0.990566 0.320755 -2.415094 1 1 0
-0.970262 0.317201 -2.388338 0 1 0
-0.960933 0.317201 -2.388338 1 1 0
-1.003690 0.334563 -2.519065 2 0 1
-0.996301 0.335388 -2.525277 2 0 1
-0.986436 0.335388 -2.525277 2 0 1
-0.887861 0.314451 -2.367630 0 1 0
-0.871560 0.311927 -2.348624 0 1 0
-0.860904 0.311391 -2.344591 0 0 0
-0.852234 0.311569 -2.345934 1 0 0
-0.559441 0.345836 -2.603941 3 3 0
-0.549269 0.345836 -2.603941 3 3 0
-0.539097 0.345836 -2.603941 4 2 0
-0.529262 0.346056 -2.605598 4 2 2
-0.519084 0.346056 -2.605598 4 2 2
-0.460653 0.348049 -2.620601 2 2 2
-0.449266 0.347160 -2.613912 2 3 1
-0.348440 0.320188 -2.410830 4 2 3
-0.337039 0.318315 -2.396723 4 2 3
-0.327294 0.317943 -2.393922 3 2 2
-0.317757 0.317757 -2.392523 2 3 1
-0.308411 0.317757 -2.392523 2 2 2
-0.298891 0.317572 -2.391127 2 2 3
-0.289550 0.317572 -2.391127 1 3 4
-0.280210 0.317572 -2.391127 1 2 5
-0.250871 0.315912 -2.378629 5 2 6
-0.241439 0.315728 -2.377249 5 3 4
-0.233236 0.317201 -2.388338 4 4 3
-0.224037 0.317386 -2.389732 4 4 2
-0.214577 0.317201 -2.388338 4 3 2
-0.205248 0.317201 -2.388338 5 3 3
-0.195576 0.316647 -2.384168 3 3 4
-0.186916 0.317757 -2.392523 2 4 4
-0.108108 0.306306 -2.306306 3 5 6
-0.099099 0.306306 -2.306306 1 6 4
-0.090090 0.306306 -2.306306 1 6 3
-0.081081 0.306306 -2.306306 1 5 2
-0.072072 0.306306 -2.306306 2 4 1
-0.063063 0.306306 -2.306306 3 3 1
-0.054054 0.306306 -2.306306 4 2 2
-0.045045 0.306306 -2.306306 3 2 2
-0.036036 0.306306 -2.306306 3 2 2
-0.027027 0.306306 -2.306306 4 2 4
-0.018018 0.306306 -2.306306 5 2 4
-0.009009 0.306306 -2.306306 4 2 4
0.131868 1.494506 -11.252748 2 1 7
0.172973 1.470270 -11.070271 3 2 6
0.215054 1.462366 -11.010753 2 2 3
0.251309 1.424084 -10.722513 2 2 3
0.293194 1.424084 -10.722513 3 2 4
0.333333 1.416667 -10.666667 5 2 4
0.375979 1.420366 -10.694517 6 2 6
0.422164 1.435356 -10.807388 6 3 6
0.474394 1.466307 -11.040431 6 3 6
0.644295 1.825503 -13.744967 7 2 6
0.764706 2.000000 -15.058824 6 2 5
0.842105 2.045113 -15.398497 6 2 5
0.937500 2.125000 -16.000000 6 3 7
0.948148 2.014815 -15.170370 9 4 8
0.207181 0.320188 -2.410830 106 92 56
0.214828 0.317572 -2.391127 110 103 62
0.222222 0.314815 -2.370370 115 114 70
0.230548 0.313545 -2.360807 121 120 72
0.238395 0.311748 -2.347278 125 120 70
0.245455 0.309091 -2.327273 126 121 70
0.254545 0.309091 -2.327273 130 126 78
0.415247 0.441200 -3.321979 122 105 59
0.426150 0.439064 -3.305892 111 99 55
0.437299 0.437299 -3.292604 123 124 72
0.495495 0.306306 -2.306306 152 141 95
0.504505 0.306306 -2.306306 161 168 124
0.513514 0.306306 -2.306306 162 184 138
0.522523 0.306306 -2.306306 170 198 149
0.534541 0.308041 -2.319366 173 199 153
0.543601 0.308041 -2.319366 174 196 157
0.549550 0.306306 -2.306306 176 198 161
0.558559 0.306306 -2.306306 178 199 166
0.567568 0.306306 -2.306306 179 198 165
0.576577 0.306306 -2.306306 171 193 153
0.585586 0.306306 -2.306306 167 192 147
0.621622 0.306306 -2.306306 146 157 121
0.630631 0.306306 -2.306306 143 149 115
0.639640 0.306306 -2.306306 143 146 108
0.648649 0.306306 -2.306306 142 140 105
0.657658 0.306306 -2.306306 136 126 95
0.666667 0.306306 -2.306306 137 123 95
0.675676 0.306306 -2.306306 137 123 97
0.684685 0.306306 -2.306306 139 124 99
0.693694 0.306306 -2.306306 141 126 97
0.702703 0.306306 -2.306306 143 131 94
0.711712 0.306306 -2.306306 142 132 88
0.720721 0.306306 -2.306306 143 132 88
0.729730 0.306306 -2.306306 144 130 87
0.738739 0.306306 -2.306306 135 119 82
0.747748 0.306306 -2.306306 126 113 80
0.756757 0.306306 -2.306306 121 109 75
0.765766 0.306306 -2.306306 112 98 69
0.774775 0.306306 -2.306306 99 85 60
0.783784 0.306306 -2.306306 62 50 35
-1.457859 0.300683 -2.332574 6 0 4
-1.457880 0.302579 -2.347278 4 0 4
-1.448711 0.302579 -2.347278 2 0 1
-1.440367 0.302752 -2.348624 2 0 0
-1.523335 0.328563 -2.548849 0 0 3
-1.408222 0.305732 -2.371743 0 0 3
-1.396532 0.305202 -2.367630 0 0 3
-1.388086 0.305379 -2.368999 1 0 3
-1.294528 0.307334 -2.384168 1 0 2
-1.268965 0.303448 -2.354023 2 0 3
-1.256160 0.302579 -2.347278 2 0 2
-1.294468 0.314099 -2.436645 2 0 2
-1.285714 0.314286 -2.438095 1 0 1
-1.275431 0.314099 -2.436645 1 0 1
-1.227928 0.304674 -2.363531 2 0 1
-1.213096 0.303274 -2.352671 2 0 2
-1.200458 0.302406 -2.345934 1 0 1
-1.195402 0.303448 -2.354023 0 0 1
-1.678049 0.429268 -3.330081 0 0 0
-1.665041 0.429268 -3.330081 1 0 0
-1.650690 0.428920 -3.327376 2 0 0
-1.637693 0.428920 -3.327376 2 0 1
-1.620746 0.427877 -3.319287 1 0 1
-1.215686 0.323529 -2.509804 1 0 0
-1.138230 0.305379 -2.368999 0 0 0
-1.097025 0.341527 -2.649418 2 1 1
-0.979592 0.307872 -2.388338 1 1 1
-0.963521 0.305732 -2.371743 1 1 0
-0.954256 0.305732 -2.371743 1 0 0
-0.980769 0.317308 -2.461539 2 0 1
-0.972323 0.317690 -2.464501 2 0 2
-0.961538 0.317308 -2.461539 1 0 2
-0.897629 0.305379 -2.368999 0 1 1
-0.884793 0.304147 -2.359447 0 1 1
-0.871560 0.302752 -2.348624 0 1 0
-0.860904 0.302232 -2.344591 0 0 0
-0.852234 0.302406 -2.345934 1 0 1
-0.602899 0.306087 -2.374493 2 2 1
-0.592593 0.305556 -2.370370 2 2 1
-0.582996 0.305379 -2.368999 2 2 1
-0.573410 0.305202 -2.367630 1 2 2
-0.559085 0.335451 -2.602287 2 3 1
-0.546144 0.333755 -2.589128 3 3 0
-0.536030 0.333755 -2.589128 3 3 0
-0.428405 0.307334 -2.384168 2 2 2
-0.418848 0.307155 -2.382781 2 3 1
-0.409540 0.307155 -2.382781 3 3 0
-0.346401 0.308953 -2.396723 4 2 1
-0.336449 0.308411 -2.392523 5 3 3
-0.326531 0.307872 -2.388338 4 3 2
-0.317016 0.307692 -2.386946 3 3 1
-0.307692 0.307692 -2.386946 2 3 1
-0.298195 0.307513 -2.385556 2 2 2
-0.287370 0.305910 -2.373117 2 2 4
-0.277939 0.305732 -2.371743 2 2 4
-0.260012 0.306442 -2.377249 3 1 6
-0.250725 0.306442 -2.377249 4 2 5
-0.240602 0.305379 -2.368999 4 2 4
-0.232153 0.306442 -2.377249 3 2 2
-0.224037 0.308051 -2.389732 3 2 2
-0.214577 0.307872 -2.388338 4 3 3
-0.204889 0.307334 -2.384168 5 4 4
-0.195349 0.306977 -2.381395 4 4 5
-0.186155 0.307155 -2.382781 2 4 4
-0.178195 0.309496 -2.400938 2 2 3
-0.168816 0.309496 -2.400938 3 2 3
-0.159437 0.309496 -2.400938 4 2 3
-0.108108 0.297297 -2.306306 4 4 7
-0.099099 0.297297 -2.306306 3 5 6
-0.090090 0.297297 -2.306306 2 5 4
-0.081540 0.298981 -2.319366 2 4 3
-0.072072 0.297297 -2.306306 2 4 2
-0.063063 0.297297 -2.306306 5 3 1
-0.054054 0.297297 -2.306306 6 1 2
-0.045045 0.297297 -2.306306 5 2 3
-0.036036 0.297297 -2.306306 5 3 4
-0.027027 0.297297 -2.306306 4 3 4
-0.018018 0.297297 -2.306306 3 2 3
-0.009009 0.297297 -2.306306 3 2 3
0.000000 1.504274 -11.669516 3 4 4
0.045326 1.495751 -11.603399 3 4 2
0.089385 1.474860 -11.441340 3 3 2
0.130790 1.438692 -11.160763 2 2 3
0.173442 1.430894 -11.100271 2 2 4
0.216216 1.427027 -11.070271 2 2 4
0.258065 1.419355 -11.010753 3 3 5
0.296296 1.396825 -10.835979 5 2 6
0.335958 1.385827 -10.750656 6 3 6
0.377953 1.385827 -10.750656 6 4 6
0.423280 1.396825 -10.835979 6 3 5
0.473118 1.419355 -11.010753 7 2 6
0.517520 1.423181 -11.040431 7 1 7
0.562162 1.427027 -11.070271 6 2 6
0.842105 1.984962 -15.398497 5 3 6
0.197763 0.310771 -2.410830 106 101 61
0.205487 0.308231 -2.391127 112 111 63
0.213581 0.306442 -2.377249 115 118 67
0.221326 0.304323 -2.360807 116 123 73
0.230548 0.304323 -2.360807 118 123 73
0.402597 0.428571 -3.324675 123 107 59
0.413905 0.426839 -3.311237 124 120 67
0.426150 0.426150 -3.305892 130 134 81
0.437299 0.424437 -3.292604 131 137 83
0.450523 0.424779 -3.295254 131 144 88
0.513514 0.297297 -2.306306 172 201 154
0.522523 0.297297 -2.306306 174 205 159
0.531532 0.297297 -2.306306 181 208 166
0.540541 0.297297 -2.306306 181 204 162
0.549550 0.297297 -2.306306 184 205 163
0.558559 0.297297 -2.306306 184 207 169
0.567568 0.297297 -2.306306 182 207 169
0.576577 0.297297 -2.306306 171 199 156
0.621622 0.297297 -2.306306 148 157 126
0.630631 0.297297 -2.306306 146 151 119
0.639640 0.297297 -2.306306 147 151 117
0.648649 0.297297 -2.306306 149 151 118
0.657658 0.297297 -2.306306 138 130 95
0.666667 0.297297 -2.306306 138 125 94
0.675676 0.297297 -2.306306 137 126 98
0.684685 0.297297 -2.306306 141 131 100
0.693694 0.297297 -2.306306 141 129 95
0.702703 0.297297 -2.306306 141 130 91
0.711712 0.297297 -2.306306 141 130 87
0.720721 0.297297 -2.306306 141 129 86
0.729730 0.297297 -2.306306 140 128 89
0.738739 0.297297 -2.306306 133 124 89
0.747748 0.297297 -2.306306 125 118 84
0.756757 0.297297 -2.306306 120 107 78
0.765766 0.297297 -2.306306 114 100 72
0.774775 0.297297 -2.306306 113 96 71
0.783784 0.297297 -2.306306 95 77 60
0.792793 0.297297 -2.306306 39 28 22
-1.457859 0.291572 -2.332574 5 0 4
-1.457045 0.293242 -2.345934 3 0 4
-1.447881 0.293242 -2.345934 3 0 2
-1.405780 0.295954 -2.367630 0 0 2
-1.387708 0.294084 -2.352671 1 0 2
-1.378518 0.294084 -2.352671 2 0 1
-1.267509 0.293915 -2.351320 1 0 1
-1.249715 0.291904 -2.335234 2 0 1
-1.240593 0.291904 -2.335234 2 0 1
-1.285714 0.304762 -2.438095 1 0 1
-1.237161 0.295441 -2.363531 0 1 1
-1.218088 0.293074 -2.344591 1 0 1
-1.206857 0.292571 -2.340571 2 0 2
-1.197714 0.292571 -2.340571 2 0 2
-1.191294 0.293242 -2.345934 1 0 1
-1.678049 0.416260 -3.330081 0 0 0
-1.663688 0.415922 -3.327376 1 0 0
-1.646677 0.414911 -3.319287 1 0 1
-1.633711 0.414911 -3.319287 2 0 1
-1.610306 0.412238 -3.297907 2 0 0
-1.146821 0.295954 -2.367630 1 0 0
-1.135603 0.295441 -2.363531 0 0 0
-1.128324 0.295954 -2.367630 0 0 0
-1.092783 0.329897 -2.639175 2 0 2
-0.966628 0.294591 -2.356732 2 1 2
-0.959078 0.295101 -2.360807 3 1 1
-0.951501 0.295612 -2.364896 2 0 0
-0.980180 0.307508 -2.460060 1 0 0
-0.970571 0.307508 -2.460060 1 0 1
-0.955224 0.305672 -2.445373 1 0 2
-0.945672 0.305672 -2.445373 1 0 1
-0.933333 0.304762 -2.438095 1 0 2
-0.895040 0.295271 -2.362168 1 1 3
-0.884283 0.294761 -2.358089 0 1 2
-0.870561 0.293242 -2.345934 0 1 1
-0.860904 0.293074 -2.344591 1 0 2
-0.852234 0.293242 -2.345934 1 0 2
-0.612174 0.296812 -2.374493 2 3 0
-0.601852 0.296296 -2.370370 3 2 0
-0.592250 0.296125 -2.368999 3 1 0
-0.582659 0.295954 -2.367630 3 1 1
-0.573410 0.295954 -2.367630 2 2 3
-0.503497 0.298368 -2.386946 3 3 0
-0.493310 0.297848 -2.382781 3 3 0
-0.437464 0.297848 -2.382781 3 2 2
-0.428156 0.297848 -2.382781 2 2 2
-0.418361 0.297501 -2.380012 3 3 1
-0.407643 0.296468 -2.371743 4 2 1
-0.398379 0.296468 -2.371743 4 2 2
-0.356389 0.300117 -2.400938 4 2 2
-0.345794 0.299065 -2.392523 4 2 3
-0.335860 0.298542 -2.388338 4 4 3
-0.326340 0.298368 -2.386946 3 4 1
-0.316647 0.298021 -2.384168 3 3 1
-0.306798 0.297501 -2.380012 2 3 0
-0.297329 0.297329 -2.378629 2 3 1
-0.287370 0.296640 -2.373117 2 2 2
-0.276976 0.295441 -2.363531 3 2 2
-0.266360 0.293915 -2.351320 4 1 3
-0.256586 0.293242 -2.345934 3 1 4
-0.243243 0.288288 -2.306306 4 2 4
-0.234234 0.288288 -2.306306 5 3 3
-0.225225 0.288288 -2.306306 3 2 2
-0.216216 0.288288 -2.306306 3 2 3
-0.214452 0.298368 -2.386946 5 3 4
-0.204889 0.298021 -2.384168 6 4 5
-0.195349 0.297674 -2.381395 5 4 6
-0.178195 0.300117 -2.400938 3 2 3
-0.168816 0.300117 -2.400938 4 2 4
-0.159437 0.300117 -2.400938 6 2 5
-0.108108 0.288288 -2.306306 5 3 7
-0.099099 0.288288 -2.306306 5 3 7
-0.090754 0.290414 -2.323313 4 3 6
-0.081725 0.290579 -2.324631 4 3 6
-0.072521 0.290085 -2.320680 4 4 4
-0.063063 0.288288 -2.306306 5 4 2
-0.054054 0.288288 -2.306306 6 1 2
-0.045045 0.288288 -2.306306 6 1 3
-0.036036 0.288288 -2.306306 6 2 4
-0.027027 0.288288 -2.306306 4 4 3
-0.018018 0.288288 -2.306306 2 3 2
-0.045584 1.458689 -11.669516 2 4 2
0.045584 1.458689 -11.669516 5 5 2
0.090652 1.450425 -11.603399 5 4 2
0.134078 1.430168 -11.441340 4 3 3
0.175824 1.406593 -11.252748 2 4 4
0.217391 1.391304 -11.130435 3 4 5
0.260870 1.391304 -11.130435 5 4 6
0.302703 1.383784 -11.070271 6 2 6
0.338624 1.354497 -10.835979 6 2 6
0.380952 1.354497 -10.835979 6 3 5
0.427807 1.368984 -10.951872 7 2 4
0.470588 1.368984 -10.951872 7 1 6
0.517520 1.380054 -11.040431 7 1 7
0.562162 1.383784 -11.070271 6 2 7
0.629214 1.438202 -11.505618 6 4 7
0.206694 0.300646 -2.405167 118 120 68
0.214078 0.297848 -2.382781 122 126 72
0.221198 0.294931 -2.359447 123 127 76
0.227790 0.291572 -2.332574 123 127 77
0.234234 0.288288 -2.306306 122 130 80
0.415247 0.415247 -3.321979 133 141 88
0.426839 0.413905 -3.311237 141 160 113
0.437651 0.411907 -3.295254 139 157 115
0.449799 0.411245 -3.289960 126 137 92
0.463395 0.411907 -3.295254 124 137 89
0.440476 0.380952 -3.047619 119 124 77
0.522523 0.288288 -2.306306 179 206 159
0.531532 0.288288 -2.306306 184 208 166
0.540541 0.288288 -2.306306 186 208 167
0.549550 0.288288 -2.306306 185 204 167
0.558559 0.288288 -2.306306 180 197 159
0.621622 0.288288 -2.306306 151 160 124
0.630631 0.288288 -2.306306 151 154 116
0.639640 0.288288 -2.306306 148 150 112
0.648649 0.288288 -2.306306 147 150 113
0.657658 0.288288 -2.306306 140 139 100
0.666667 0.288288 -2.306306 138 131 95
0.675676 0.288288 -2.306306 140 130 99
0.684685 0.288288 -2.306306 146 136 102
0.693694 0.288288 -2.306306 145 131 94
0.702703 0.288288 -2.306306 144 129 87
0.711712 0.288288 -2.306306 141 129 84
0.720721 0.288288 -2.306306 139 128 81
0.729730 0.288288 -2.306306 138 128 84
0.738739 0.288288 -2.306306 134 128 88
0.747748 0.288288 -2.306306 126 123 86
0.756757 0.288288 -2.306306 119 108 76
0.765766 0.288288 -2.306306 114 101 70
0.774775 0.288288 -2.306306 118 107 78
0.783784 0.288288 -2.306306 111 96 77
0.792793 0.288288 -2.306306 72 63 51
-1.455372 0.281978 -2.328596 5 0 4
-1.457880 0.284241 -2.347278 4 0 4
-2.882554 0.565564 -4.670467 3 0 3
-1.387708 0.284894 -2.352671 2 0 2
-1.377727 0.284730 -2.351320 2 0 1
-1.310386 0.294362 -2.430861 1 0 1
-1.300890 0.294362 -2.430861 2 0 0
-1.227247 0.283915 -2.344591 1 0 0
-1.217391 0.283753 -2.343249 2 0 1
-1.206857 0.283429 -2.340571 2 0 1
-1.197030 0.283267 -2.339235 2 0 1
-1.660989 0.402271 -3.321979 0 0 0
-1.644013 0.401294 -3.313916 0 0 0
-1.633711 0.401945 -3.319287 1 0 0
-1.509893 0.377473 -3.117199 0 0 0
-1.135603 0.286209 -2.363531 0 0 0
-1.481032 0.376328 -3.107739 0 0 0
-0.978085 0.286044 -2.362168 2 0 2
-0.966628 0.285385 -2.356732 3 0 2
-0.957422 0.285385 -2.356732 2 1 1
-0.949856 0.285879 -2.360807 1 0 0
-0.979592 0.297719 -2.458583 0 0 0
-0.969988 0.297719 -2.458583 0 0 0
-0.952948 0.295414 -2.439547 1 0 1
-0.942857 0.295238 -2.438095 1 0 1
-0.930564 0.294362 -2.430861 2 0 2
-0.913478 0.291936 -2.410830 2 0 4
-0.884283 0.285550 -2.358089 1 0 3
-0.871560 0.284404 -2.348624 0 1 3
-0.860412 0.283753 -2.343249 0 1 3
-0.851259 0.283753 -2.343249 1 0 2
-0.612174 0.287536 -2.374493 2 3 1
-0.602200 0.287203 -2.371743 2 2 0
-0.592593 0.287037 -2.370370 3 1 0
-0.583333 0.287037 -2.370370 3 0 1
-0.623507 0.311754 -2.574481 2 1 3
-0.556258 0.313527 -2.589128 3 3 1
-0.502618 0.288540 -2.382781 3 3 0
-0.493310 0.288540 -2.382781 3 4 0
-0.428904 0.289044 -2.386946 2 2 2
-0.418848 0.288540 -2.382781 3 2 2
-0.409540 0.288540 -2.382781 4 2 2
-0.399304 0.287870 -2.377249 3 2 3
-0.356180 0.290568 -2.399531 5 2 4
-0.345794 0.289720 -2.392523 5 2 4
-0.335860 0.289213 -2.388338 5 3 3
-0.325960 0.288708 -2.384168 4 3 2
-0.316095 0.288205 -2.380012 3 2 1
-0.306620 0.288037 -2.378629 3 2 1
-0.297501 0.288205 -2.380012 2 3 2
-0.289044 0.289044 -2.386946 3 3 2
-0.280210 0.289550 -2.391127 4 3 2
-0.259560 0.287370 -2.373117 3 2 5
-0.243243 0.279279 -2.306306 4 2 5
-0.234234 0.279279 -2.306306 5 2 4
-0.225225 0.279279 -2.306306 5 2 4
-0.216216 0.279279 -2.306306 5 2 4
-0.213953 0.288372 -2.381395 5 3 5
-0.221523 0.312146 -2.577722 5 4 6
-0.211587 0.312343 -2.579345 4 4 6
-0.191436 0.312343 -2.579345 2 2 3
-0.117117 0.279279 -2.306306 5 4 6
-0.108108 0.279279 -2.306306 4 3 7
-0.099099 0.279279 -2.306306 4 3 8
-0.072645 0.281498 -2.324631 5 4 5
-0.063063 0.279279 -2.306306 5 3 3
-0.054054 0.279279 -2.306306 5 3 2
-0.045045 0.279279 -2.306306 5 3 3
-0.036036 0.279279 -2.306306 5 3 3
-0.027027 0.279279 -2.306306 5 2 4
-0.018018 0.279279 -2.306306 5 3 3
-0.045584 1.413105 -11.669516 4 4 3
0.000000 1.810219 -14.948905 5 5 2
0.045584 1.413105 -11.669516 6 5 2
0.091168 1.413105 -11.669516 6 4 3
0.170819 1.765125 -14.576512 4 5 4
0.227758 1.765125 -14.576512 4 7 5
0.278746 1.728223 -14.271777 6 8 6
0.333333 1.722222 -14.222222 7 6 5
0.388889 1.722222 -14.222222 6 4 5
0.444444 1.722222 -14.222222 6 2 5
0.489796 1.687075 -13.931973 7 2 5
0.431267 1.336927 -11.040431 7 3 4
0.473118 1.333333 -11.010753 7 2 5
0.520325 1.344173 -11.100271 7 2 7
0.584270 1.393258 -11.505618 7 4 8
0.629214 1.393258 -11.505618 9 5 8
0.197299 0.291251 -2.405167 119 123 76
0.204770 0.288540 -2.382781 121 126 75
0.210046 0.283105 -2.337899 124 128 74
0.217811 0.281339 -2.323313 128 131 77
0.226629 0.281020 -2.320680 130 133 79
0.234234 0.279279 -2.306306 127 135 83
0.244621 0.280861 -2.319366 124 140 88
0.414911 0.401945 -3.319287 137 143 95
0.426839 0.400970 -3.311237 128 140 100
0.409330 0.373213 -3.082016 125 139 106
0.419790 0.371814 -3.070465 125 126 88
0.431784 0.371814 -3.070465 119 115 67
0.442451 0.370703 -3.061285 117 114 63
0.456114 0.372093 -3.072768 120 117 66
0.522523 0.279279 -2.306306 183 211 162
0.531532 0.279279 -2.306306 185 211 167
0.540541 0.279279 -2.306306 188 210 171
0.617831 0.281658 -2.325951 162 179 137
0.621622 0.279279 -2.306306 157 166 122
0.630631 0.279279 -2.306306 157 158 108
0.639640 0.279279 -2.306306 153 150 98
0.648649 0.279279 -2.306306 146 145 94
0.657658 0.279279 -2.306306 146 147 99
0.666667 0.279279 -2.306306 144 140 97
0.675676 0.279279 -2.306306 142 132 96
0.684685 0.279279 -2.306306 148 136 100
0.693694 0.279279 -2.306306 147 131 92
0.702703 0.279279 -2.306306 147 129 86
0.711712 0.279279 -2.306306 142 128 81
0.720721 0.279279 -2.306306 137 128 76
0.729730 0.279279 -2.306306 134 126 75
0.738739 0.279279 -2.306306 131 124 78
0.747748 0.279279 -2.306306 126 121 80
0.756757 0.279279 -2.306306 121 110 75
0.765766 0.279279 -2.306306 118 109 74
0.774775 0.279279 -2.306306 117 113 80
0.783784 0.279279 -2.306306 115 105 80
0.792793 0.279279 -2.306306 93 84 67
0.801802 0.279279 -2.306306 49 40 32
-1.466208 0.274914 -2.345934 5 0 5
-2.400000 0.452830 -3.864151 4 0 4
-2.885845 0.547945 -4.675799 2 0 3
-1.303210 0.285375 -2.435196 2 0 1
-1.217391 0.274600 -2.343249 2 0 0
-1.206168 0.274129 -2.339235 2 0 1
-1.197030 0.274129 -2.339235 1 0 0
-1.656958 0.388350 -3.313916 0 0 0
-1.641357 0.387722 -3.308562 0 1 0
-1.628433 0.387722 -3.308562 0 1 0
-1.493171 0.364188 -3.107739 0 0 0
-1.481032 0.364188 -3.107739 0 0 1
-0.968858 0.276817 -2.362168 2 0 2
-0.959078 0.276657 -2.360807 1 1 1
-0.949856 0.276657 -2.360807 0 1 0
-0.973747 0.286396 -2.443914 0 0 0
-0.964200 0.286396 -2.443914 1 0 0
-0.951249 0.285375 -2.435196 2 0 1
-0.941176 0.285205 -2.433749 1 0 1
-0.930564 0.284866 -2.430861 1 0 2
-0.874568 0.276180 -2.356732 1 0 3
-0.858938 0.274129 -2.339235 0 0 3
-0.849800 0.274129 -2.339235 1 1 2
-0.602899 0.278261 -2.374493 3 2 1
-0.593623 0.278261 -2.374493 3 1 0
-0.635962 0.302839 -2.584227 3 1 1
-0.625867 0.302839 -2.584227 3 2 3
-0.519174 0.283186 -2.416519 3 3 0
-0.504378 0.280210 -2.391127 3 3 0
-0.493310 0.279232 -2.382781 3 4 0
-0.481760 0.277939 -2.371743 3 4 0
-0.434475 0.283353 -2.417946 3 2 2
-0.420807 0.280538 -2.393922 2 2 2
-0.410256 0.279720 -2.386946 3 2 3
-0.400466 0.279395 -2.384168 2 2 3
-0.346401 0.280866 -2.396723 6 1 4
-0.336449 0.280374 -2.392523 5 2 4
-0.326531 0.279883 -2.388338 5 2 3
-0.316647 0.279395 -2.384168 4 1 3
-0.307334 0.279395 -2.384168 4 2 3
-0.298891 0.280210 -2.391127 3 2 3
-0.243243 0.270270 -2.306306 3 3 5
-0.234234 0.270270 -2.306306 6 2 4
-0.225225 0.270270 -2.306306 7 2 5
-0.216216 0.270270 -2.306306 6 2 6
-0.207207 0.270270 -2.306306 6 3 6
-0.126126 0.270270 -2.306306 6 4 5
-0.117117 0.270270 -2.306306 5 4 6
-0.108108 0.270270 -2.306306 5 3 7
-0.099099 0.270270 -2.306306 5 3 8
-0.090090 0.270270 -2.306306 5 3 7
-0.081586 0.271955 -2.320680 5 4 7
-0.072072 0.270270 -2.306306 5 4 6
-0.063063 0.270270 -2.306306 5 4 5
-0.054054 0.270270 -2.306306 5 4 3
-0.045045 0.270270 -2.306306 5 3 1
-0.036036 0.270270 -2.306306 5 3 2
-0.027027 0.270270 -2.306306 5 3 3
-0.018018 0.270270 -2.306306 5 3 4
-0.058394 1.751825 -14.948905 5 4 3
0.000000 1.764706 -15.058824 6 5 2
0.058824 1.764706 -15.058824 7 5 2
0.118519 1.777778 -15.170370 6 4 3
0.177778 1.777778 -15.170370 6 6 5
0.235294 1.764706 -15.058824 6 8 6
0.284698 1.708185 -14.576512 7 8 6
0.336842 1.684211 -14.371930 7 6 5
0.388889 1.666667 -14.222222 5 4 4
0.444444 1.666667 -14.222222 5 2 5
0.496552 1.655172 -14.124138 5 3 5
0.544218 1.632653 -13.931973 6 4 4
0.588629 1.605351 -13.698997 6 4 5
0.642140 1.605351 -13.698997 7 4 6
0.634561 1.359773 -11.603399 14 8 13
0.173121 0.273349 -2.332574 108 107 70
0.182544 0.273816 -2.336566 113 113 72
0.191781 0.273973 -2.337899 115 116 73
0.200913 0.273973 -2.337899 119 124 76
0.209210 0.272882 -2.328596 127 135 83
0.217811 0.272263 -2.323313 130 141 86
0.226629 0.271955 -2.320680 133 145 91
0.235561 0.271801 -2.319366 132 144 95
0.243243 0.270270 -2.306306 127 142 96
0.253681 0.271801 -2.319366 127 149 100
0.389947 0.365575 -3.119574 138 138 97
0.397890 0.361718 -3.086662 119 122 85
0.408408 0.360360 -3.075075 120 129 86
0.420105 0.360090 -3.072768 127 128 80
0.432108 0.360090 -3.072768 123 115 65
0.443446 0.359551 -3.068165 120 111 63
0.454410 0.358744 -3.061285 123 118 68
0.466368 0.358744 -3.061285 137 144 99
0.517888 0.272572 -2.325951 190 218 160
0.522523 0.270270 -2.306306 191 221 173
0.531532 0.270270 -2.306306 187 215 178
0.608745 0.272572 -2.325951 169 188 140
0.612613 0.270270 -2.306306 166 183 139
0.621622 0.270270 -2.306306 162 173 125
0.630631 0.270270 -2.306306 162 162 105
0.639640 0.270270 -2.306306 161 157 92
0.648649 0.270270 -2.306306 158 155 89
0.657658 0.270270 -2.306306 156 159 98
0.666667 0.270270 -2.306306 152 152 102
0.675676 0.270270 -2.306306 142 133 94
0.684685 0.270270 -2.306306 146 134 96
0.693694 0.270270 -2.306306 146 132 93
0.702703 0.270270 -2.306306 146 132 90
0.711712 0.270270 -2.306306 142 132 83
0.720721 0.270270 -2.306306 135 128 74
0.729730 0.270270 -2.306306 130 121 69
0.738739 0.270270 -2.306306 129 120 72
0.747748 0.270270 -2.306306 125 118 77
0.756757 0.270270 -2.306306 123 117 79
0.765766 0.270270 -2.306306 121 119 79
0.774775 0.270270 -2.306306 114 114 77
0.783784 0.270270 -2.306306 111 109 78
0.792793 0.270270 -2.306306 100 96 71
0.801802 0.270270 -2.306306 84 74 56
0.810811 0.270270 -2.306306 34 25 18
-2.415094 0.437736 -3.864151 6 0 5
-2.400000 0.437736 -3.864151 4 0 5
-2.882554 0.529076 -4.670467 2 0 3
-1.312723 0.275862 -2.435196 2 0 2
-1.300119 0.275208 -2.429419 2 0 2
-1.291395 0.275371 -2.430861 2 0 2
-1.218786 0.265750 -2.345934 2 0 1
-1.206168 0.264991 -2.339235 2 0 1
-1.197030 0.264991 -2.339235 1 0 0
-1.656958 0.375405 -3.313916 0 0 0
-1.640032 0.374496 -3.305892 0 0 0
-1.627119 0.374496 -3.305892 0 1 0
-1.497717 0.353120 -3.117199 0 0 0
-1.481032 0.352049 -3.107739 1 0 1
-0.977376 0.262443 -2.316742 0 0 1
-0.959631 0.267589 -2.362168 0 1 1
-0.983294 0.276850 -2.443914 0 0 0
-0.973747 0.276850 -2.443914 0 1 0
-0.964200 0.276850 -2.443914 2 0 1
-0.951249 0.275862 -2.435196 2 1 1
-0.941176 0.275698 -2.433749 1 1 1
-0.931670 0.275698 -2.433749 0 1 1
-0.846847 0.261261 -2.306306 1 0 1
-0.837838 0.261261 -2.306306 2 0 1
-0.636364 0.292929 -2.585859 4 2 1
-0.625473 0.292560 -2.582598 4 3 3
